ply
format ascii 1.0
element vertex 857
property double x
property double y
property double z
end_header
0.038205569230646 0.546180555692590 -0.096779117391591
-0.030947843811002 -0.000000000000000 -0.039271248559854
-2.655140744766542 0.738720874900519 1.907326835381599
-0.028478323557568 0.000000000000000 -0.041097263745297
-3.043373357843361 0.323077029657127 1.907205521221337
0.205913184060352 -0.013075891021806 -0.182673976537748
-0.049119575552753 1.344453536086839 -0.029740865843330
-0.023226647836609 -0.000000000000000 -0.044277791614692
0.253750299903428 0.002760514563930 -0.179440038336661
-4.388267260181632 -1.425114396418501 1.913684136120360
-0.018982496333774 0.000000000000000 -0.046256511249102
-5.137562014652038 -0.304513540827798 1.872773424378138
-0.016106675745898 -0.000000000000000 -0.047334712383371
-0.393885126325160 1.285152719703151 0.069007204692032
-0.124121183146638 -3.345024309720388 -0.017756668435354
0.172022155321850 0.409242548904479 -0.092760318803840
-5.350851364817625 1.772985005226261 1.070663389152813
-0.762913277723734 -3.385169358904920 0.084836930072226
-0.007235080093016 -0.000000000000000 -0.049473766948229
0.087817557513657 1.356988049951595 -0.060428233309454
-0.444206982450440 -0.281155929858582 -0.013555436091505
-0.002574966402622 -0.000000000000000 -0.049933651458965
0.241965476113638 0.203498658012377 -0.055045477164453
-1.510007570373260 1.223241510103122 -0.064972362401844
0.038357101851344 -1.220210722200288 -0.048426115526822
0.003641021830167 0.000000000000000 -0.049867253383681
-0.391632600756530 1.277751790580452 -0.089758106559376
0.006543613190229 0.000000000000000 -0.049569961936809
0.008062966681751 -0.000000000000000 -0.049345603332911
0.009574712693851 -0.000000000000000 -0.049074686721672
0.011077424880973 -0.000000000000000 -0.048757467715278
0.504562986886731 -0.863491073093791 0.079393695916456
0.014123769979479 -0.000000000000000 -0.047963727144237
0.015590215267177 -0.000000000000000 -0.047507317204017
0.484112685572265 0.558169324628450 0.122329371827986
0.018406227634234 0.000000000000000 -0.046488824294413
-0.607846028657954 1.129685028468850 -0.318143842307354
-2.107967298508032 -0.499262927815612 -1.051554395801630
-0.313237634898116 -3.255965895699817 -0.216132673659311
0.024032604728140 -0.000000000000000 -0.043845568875098
0.025367894632055 0.000000000000000 -0.043086772006464
-0.254179786844127 -0.168749313950295 -0.219482470828945
-0.221228445640728 -0.180392085737247 -0.209025674841043
0.029162885259180 -0.000000000000000 -0.040614358586095
0.030457453094141 -0.000000000000000 -0.039652787430623
-0.256240273478825 -0.378249233317660 -0.272770053785418
0.032776599123643 0.000000000000000 -0.037758370593658
-0.218423146711182 0.086889710381576 -0.269036372467723
-0.202345581888516 0.057528675567842 -0.267355506727668
-0.556744753542782 0.616060077992276 -0.649877544008668
0.639334367719371 0.134063135894557 0.631211249778542
0.140595675366621 -3.477977902716620 0.074189802419927
0.035033012511425 -0.000000000000000 -0.035674753459195
0.033920808106757 0.000000000000000 -0.036733891399967
0.280836943416678 0.309009512692428 0.178242236234754
0.031720338782229 -0.000000000000000 -0.038649969049672
-0.244498693496953 -0.170392689372030 -0.251519945107441
0.621786579248344 0.137071518434324 0.389066959148103
0.855683295445273 -1.323101479459333 0.520730386523047
0.026809020960753 0.000000000000000 -0.042205170241641
-0.089929622829460 -0.188024096087684 -0.111447755599475
0.024167175051557 -0.000000000000000 -0.043771539269569
0.022811420359862 -0.000000000000000 -0.044493135438691
0.248526883622009 0.859759301143872 0.062581105085594
-1.090715523266832 1.132608669991830 -0.533673411801729
-1.592014396455498 -0.567028184803079 -0.692699257699446
0.017114127083479 0.000000000000000 -0.046979853705291
-3.121421980483417 -0.239141806505010 -1.082303107330152
0.112385157311994 -1.204156179384775 -0.018700857344534
0.319300063949919 0.012368726272156 0.032280741502973
0.011227144572128 0.000000000000000 -0.048723210328924
0.009725413899971 0.000000000000000 -0.049045043831913
0.008214507214934 -0.000000000000000 -0.049320602908073
0.237999697454503 0.632792505186410 0.188228024989564
0.036005764612999 -0.000000000000000 -0.034692721349490
0.035033012511425 -0.000000000000000 -0.035674753459195
0.582249900033074 0.488810926530255 0.471166565044793
-0.282031850540764 0.894071627506157 -0.311880622464820
0.031720338782229 0.000000000000000 -0.038649969049672
0.030579113825931 -0.000000000000000 -0.039559041919905
-0.244458372112343 -0.072754836570979 -0.238363353013238
-1.468336019611807 0.073958150241725 -1.054367950728482
-0.287447306335584 -0.067871200084693 -0.241146317159273
-0.088854499130245 -0.192870465089901 -0.110810307193503
-0.648384153942536 -3.328657575074852 -0.413754440233605
0.022811420359862 -0.000000000000000 -0.044493135438691
-2.125089287489745 -0.242514000604498 -1.063682538263711
-0.490631668761791 -3.292149610836968 -0.269170030787272
0.018620236613877 0.000000000000000 -0.046403521293575
0.160071512291664 0.970900967139113 0.005097593647406
0.015736073486737 -0.000000000000000 -0.047459203440640
-3.611547968235734 0.663887757053686 -1.127721294986740
-1.007185555390442 0.619949510014816 -0.318282774502857
-2.183975879477460 2.539260874096018 -0.554557319982147
-0.445559310025296 1.261309309032770 -0.139325978184470
0.243513209228541 0.229476977220168 -0.010130836940331
0.006771944907812 -0.000000000000000 -0.049539285038902
0.005247251922129 -0.000000000000000 -0.049723901167001
-0.220964893391527 -0.280696953581084 -0.066960705930938
-1.490195928773497 1.211155464938098 -0.117512110514079
0.228190185303786 0.221126003930718 -0.046691457641156
-0.000809797365929 -0.000000000000000 -0.049993441852168
-0.002344862133591 0.000000000000000 -0.049944985950288
0.038400359753120 1.354333708655148 -0.053203552242524
0.539930164387621 0.224837945470922 -0.109874090944006
-0.007007045343741 -0.000000000000000 -0.049506578507818
-5.881838450328823 -0.918853076891656 0.957630261280497
0.025221354538366 1.356775164931657 -0.056147997292211
-0.011458320671846 -0.000000000000000 -0.048669362923518
-0.012947695563358 -0.000000000000000 -0.048294483945877
-0.014424854191123 -0.000000000000000 -0.047874038701209
-0.015888402843085 -0.000000000000000 -0.047408423883270
0.157205447691556 0.458420341788462 -0.111421721179702
0.224579238379439 0.288726969122703 -0.144899846411681
-0.020253887941287 -0.000000000000000 -0.045714111861238
-0.021579100156895 -0.000000000000000 -0.045103685397301
0.094337281823750 0.593236082896644 -0.105030898822931
-0.024307618366592 -0.000000000000000 -0.043693703085732
0.158633280468356 0.405020680403116 -0.152600109022390
0.208279876592230 -0.002513035670669 -0.192597352418053
-2.106046029056557 3.334464323241211 1.384426975512481
0.286249687408408 -0.324994475982720 -0.271599465278020
-0.480323463301591 -3.324436238553825 0.311515756250087
0.047135059055617 0.562675953187766 -0.104202005316897
-0.030947843811002 -0.000000000000000 -0.039271248559854
-2.671571865944916 0.807733419851821 1.919515430400622
-0.028478323557568 0.000000000000000 -0.041097263745297
-3.021332526223490 0.387480130955639 1.892961942062910
0.206536817679716 -0.017863668163822 -0.183050354554338
-0.027068224194269 1.345996796758716 -0.042141836151806
-0.023226647836609 -0.000000000000000 -0.044277791614692
0.253748905743329 -0.002927813541424 -0.179439358118362
-4.383164033373752 -1.328845370079860 1.911394936023444
-0.018982496333774 0.000000000000000 -0.046256511249102
-5.121331466590362 -0.203737919891895 1.866688275880454
-0.016106675745898 -0.000000000000000 -0.047334712383371
-0.370719043443441 1.289785080576136 0.061871534259224
-0.182096124419781 -3.323890777087994 -0.001831245659753
0.175653768826470 0.395851838386500 -0.093632996550816
-0.010258969015340 0.000000000000000 -0.048936219252638
-0.837827781382102 -3.429121075506652 0.098154257474881
-0.007235080093016 -0.000000000000000 -0.049473766948229
0.085554490502778 0.954087256134941 -0.060167988463215
-0.454767044198269 -0.276931559096321 -0.012685014294468
-0.002574966402622 -0.000000000000000 -0.049933651458965
-0.001040141198094 0.000000000000000 -0.049989179892133
-1.531199399166725 1.286732255639073 -0.065182453846463
0.002107732991054 -0.000000000000000 -0.049955554862682
0.267860573944425 0.211911342718265 -0.030575451811953
-0.367224322973120 1.283586655313987 -0.087296018905714
0.309710895410198 0.219636556665663 -0.009549567543339
0.008062966681751 -0.000000000000000 -0.049345603332911
0.009574712693851 -0.000000000000000 -0.049074686721672
0.011077424880973 -0.000000000000000 -0.048757467715278
0.012569685421058 -0.000000000000000 -0.048394245612631
0.014123769979479 -0.000000000000000 -0.047963727144237
0.015590215267177 -0.000000000000000 -0.047507317204017
0.484127909414564 0.536886013713734 0.122334891198137
0.018406227634234 0.000000000000000 -0.046488824294413
-0.631430767993659 1.219669094118891 -0.328373337197377
-2.110644640861418 -0.454369940500391 -1.052819741063324
-0.368057532872377 -3.264386943981083 -0.244132330840768
0.024032604728140 -0.000000000000000 -0.043845568875098
0.025367894632055 0.000000000000000 -0.043086772006464
0.026679249706020 -0.000000000000000 -0.042287322392460
-0.225918946530509 -0.176708421116812 -0.212179937800322
0.029162885259180 -0.000000000000000 -0.040614358586095
0.030457453094141 -0.000000000000000 -0.039652787430623
-0.241994658760087 -0.346056950293153 -0.261188001802133
0.032776599123643 0.000000000000000 -0.037758370593658
0.033864348913102 0.000000000000000 -0.036785946673855
-0.202040783517153 0.062678011511938 -0.267058024909727
-0.548061112391812 0.631804561075288 -0.640865246123014
0.640502361446017 0.118076894236424 0.632500452197115
0.097435296277757 -3.492626432328309 0.029257985933599
0.035033012511425 -0.000000000000000 -0.035674753459195
0.033920808106757 0.000000000000000 -0.036733891399967
0.282460033877905 0.299670586423549 0.179655556257688
0.031720338782229 -0.000000000000000 -0.038649969049672
-0.252393399844425 -0.169877640993832 -0.257603200301050
0.622181333022989 0.124386719870287 0.389353175481654
0.865555414446926 -1.390203489118025 0.527435442367764
-1.109316254218577 1.115698415857576 -0.763879935251190
-0.092386088044334 -0.188740595393873 -0.112904211109377
0.024167175051557 -0.000000000000000 -0.043771539269569
0.022811420359862 -0.000000000000000 -0.044493135438691
0.269905590695050 0.883168741063566 0.072725146405848
-1.077957831578657 1.160693757831042 -0.528069989556586
0.018620236613877 -0.000000000000000 -0.046403521293575
0.326975519074191 0.476208949704553 0.065898472269474
-3.143492464404219 -0.180707880773811 -1.089583424093874
0.089660850275163 -1.205185611079938 -0.025468358286537
0.326920715437586 0.008507508200059 0.034285100583239
0.011227144572128 0.000000000000000 -0.048723210328924
0.274338956122288 0.208992721800901 0.003426643836861
0.008214507214934 -0.000000000000000 -0.049320602908073
0.237420322131775 0.602659427833418 0.187588524921812
0.036005764612999 -0.000000000000000 -0.034692721349490
0.035033012511425 -0.000000000000000 -0.035674753459195
0.584766833372662 0.471412469929035 0.473497923736437
0.032834553135611 0.000000000000000 -0.037707984835903
0.031720338782229 0.000000000000000 -0.038649969049672
0.030579113825931 -0.000000000000000 -0.039559041919905
-0.243162304770663 -0.065627117977437 -0.237426672732014
-1.470480546713020 0.107211538822412 -1.055819686396266
-0.288442426752610 -0.059500072099800 -0.241776281651413
-0.092430132575839 -0.190554387753449 -0.112930325422010
0.024099918315182 -0.000000000000000 -0.043808605743638
0.022811420359862 -0.000000000000000 -0.044493135438691
-2.127784632296146 -0.199630183553507 -1.064961459809108
-0.547203074625764 -3.295344069286286 -0.293913695053179
0.018620236613877 -0.000000000000000 -0.046403521293575
0.017114127083479 0.000000000000000 -0.046979853705291
-0.274072915925771 -0.248628470405086 -0.143551325176651
0.014271037106082 0.000000000000000 -0.047920115817022
0.012792535877387 0.000000000000000 -0.048335815145974
-2.118294585200440 2.555863630734444 -0.539422574517831
-0.422752022447936 1.266977119891554 -0.134803394569586
0.243214520177344 0.221795633123384 -0.010180584575627
0.006771944907812 -0.000000000000000 -0.049539285038902
0.005247251922129 -0.000000000000000 -0.049723901167001
-0.223695129950308 -0.278152738419798 -0.067168485512794
-1.515129745478334 1.275958566420400 -0.118640859930957
0.229565272478278 0.213885764701706 -0.046671488405027
-0.000809797365929 -0.000000000000000 -0.049993441852168
-1.633351814011455 1.015342459837996 0.026628995768087
0.062458462802635 1.348605446719020 -0.055112176550423
0.542822342705376 0.213479778930240 -0.110193186031367
-0.007007045343741 -0.000000000000000 -0.049506578507818
-5.928902770045875 -0.814156532329180 0.965698786738428
0.050204365974035 1.347101786086326 -0.061225399632630
-0.240451008975931 -0.329053301318403 0.005242821179232
0.166272603635657 -0.721523666560398 -0.096343239894970
-0.014424854191123 -0.000000000000000 -0.047874038701209
-0.015888402843085 -0.000000000000000 -0.047408423883270
0.158704637215703 0.440155062377181 -0.111975931297632
0.225150744596721 0.280671709341179 -0.145131307039668
-0.020253887941287 -0.000000000000000 -0.045714111861238
-0.021579100156895 -0.000000000000000 -0.045103685397301
0.106302772100285 0.595997803823427 -0.111214155940001
-0.024307618366592 -0.000000000000000 -0.043693703085732
0.162560872387627 0.391433926905717 -0.154937708888907
0.209076995211150 -0.006037213160248 -0.193107287875767
-2.031456408612414 3.339915665042119 1.333247242755000
0.288568567500695 -0.337871504123931 -0.273297623574793
-0.531112824324789 -3.333354110474151 0.351162504437513
0.057632407182613 0.575066331335774 -0.112928219264944
-0.030947843811002 -0.000000000000000 -0.039271248559854
-2.666272074776444 0.871919276898637 1.915584048753768
-0.028478323557568 0.000000000000000 -0.041097263745297
-3.012700227157610 0.453203423950139 1.887383439527950
0.207170216965444 -0.021493552035174 -0.183432626387462
-0.006198178727967 1.351336724204581 -0.053878478045392
-0.023226647836609 -0.000000000000000 -0.044277791614692
0.252505374854263 -0.009496061076559 -0.178832632631011
-4.392527837263613 -1.236454709960441 1.915595341292335
-0.018982496333774 0.000000000000000 -0.046256511249102
-5.126512728903699 -0.105658017014348 1.868630832007475
-0.016106675745898 -0.000000000000000 -0.047334712383371
-0.346230680908901 1.294582088683924 0.054328572189298
-0.242649043552159 -3.323997380046237 0.014802334578588
0.180791997002520 0.385382839676519 -0.094867714227249
-5.441440477073217 2.031764985455772 1.089654453643500
-0.943037412061062 -3.588399772837658 0.116857059058584
0.501217938619297 -0.517800040722128 -0.123830310644792
0.098616827653114 0.899893059538659 -0.061670111867807
-0.465541169455137 -0.271537868550623 -0.011796948136189
0.568588219107821 -0.772908371483455 -0.079387255794557
-0.001040141198094 0.000000000000000 -0.049989179892133
-1.439099299253944 1.256315332468148 -0.064269392343899
0.002107732991054 -0.000000000000000 -0.049955554862682
0.276735455806862 0.209873377819591 -0.029927458661966
-0.343374265074651 1.284373124847108 -0.084890239456135
0.325117829734162 0.221883213699199 -0.007515734658985
0.008062966681751 -0.000000000000000 -0.049345603332911
0.009574712693851 -0.000000000000000 -0.049074686721672
0.011077424880973 -0.000000000000000 -0.048757467715278
0.012569685421058 -0.000000000000000 -0.048394245612631
0.014123769979479 -0.000000000000000 -0.047963727144237
0.015590215267177 -0.000000000000000 -0.047507317204017
0.489103209494231 0.520536456253649 0.124138675171499
-0.428820562391197 1.083533479237404 -0.223558436750178
-0.611633870383584 1.233122257256870 -0.319786756694705
-2.118786387450069 -0.410735937746625 -1.056667631660821
-0.420633175794489 -3.264251594428510 -0.270985718612577
0.024032604728140 -0.000000000000000 -0.043845568875098
0.304448621356474 0.217291018195474 0.121225617613261
0.026679249706020 -0.000000000000000 -0.042287322392460
-0.231590560821531 -0.172224891477426 -0.215993978837275
-0.197472001149869 -0.726249511102720 -0.203348116256153
-0.620876150381071 -3.376293864253242 -0.539944543998630
-0.183697047274309 -0.253079531860101 -0.213790540894990
0.032776599123643 0.000000000000000 -0.037758370593658
0.033864348913102 0.000000000000000 -0.036785946673855
-0.201976387509022 0.069513869664451 -0.266995174699992
0.036005764612999 0.000000000000000 -0.034692721349490
0.645260447247585 0.101208683747224 0.637752308935060
0.052611601990572 -3.504668548296607 -0.017405413426364
0.035033012511425 -0.000000000000000 -0.035674753459195
0.033920808106757 0.000000000000000 -0.036733891399967
0.284094968868565 0.291215771568168 0.181079190006819
0.031720338782229 -0.000000000000000 -0.038649969049672
-0.267891977696416 -0.171683002459683 -0.269545608297244
0.623019122393411 0.110000645278403 0.389960614896529
0.878224294374560 -1.466821110864845 0.536040033478403
-1.080821465100918 1.128170037566036 -0.745779844803649
-0.098867039992477 -0.187788418251484 -0.116746813120237
0.024167175051557 -0.000000000000000 -0.043771539269569
0.022811420359862 -0.000000000000000 -0.044493135438691
0.254856709182054 0.774280818305147 0.065584561366263
-1.057606403047886 1.182877001668490 -0.519131252821361
0.018620236613877 -0.000000000000000 -0.046403521293575
0.017114127083479 0.000000000000000 -0.046979853705291
-3.140199875441922 -0.118768318830828 -1.088497308777858
0.069748741788130 -1.205110578294093 -0.031398361464406
0.012718282335412 -0.000000000000000 -0.048355406051824
-1.262729061103941 0.553671139906036 -0.342277153164963
0.009725413899971 0.000000000000000 -0.049045043831913
0.008214507214934 -0.000000000000000 -0.049320602908073
0.238862548535571 0.579710662438953 0.189180418547170
-0.184746445712721 -0.074457482554257 -0.263799917718332
0.234291989909087 -1.511415336805441 0.159999822292825
0.587396251378912 0.456064932462279 0.475933473548749
-0.251454411074186 0.889413421170107 -0.285255053230998
-1.215764542718448 0.477557740701072 -1.062470790640896
0.030579113825931 -0.000000000000000 -0.039559041919905
-0.243277339134410 -0.059392565296018 -0.237509809168463
-1.472117212406158 0.140584162946957 -1.056927625746449
-0.288287443581335 -0.054060845335177 -0.241678169007845
-0.092177882845995 -0.194139091913876 -0.112780764782323
-0.817395470431698 -3.576541519003562 -0.506730668364803
0.022811420359862 -0.000000000000000 -0.044493135438691
-2.128731012487444 -0.155337442140699 -1.065410510340200
-0.610343439498189 -3.326080462784096 -0.321530544346033
0.018620236613877 -0.000000000000000 -0.046403521293575
0.193466102649815 0.974082575103329 0.017262792519145
-0.276525362991679 -0.243007575554641 -0.144364484362935
0.014271037106082 0.000000000000000 -0.047920115817022
0.012792535877387 0.000000000000000 -0.048335815145974
-0.857380770237680 1.105056574946065 -0.248873951017607
-0.399661518529938 1.271505121315152 -0.130224650414905
0.243145668437624 0.214094298137249 -0.010192052057356
0.006771944907812 -0.000000000000000 -0.049539285038902
0.005247251922129 -0.000000000000000 -0.049723901167001
-0.231101798987649 -0.275518717163404 -0.067732156301898
-1.442582058797079 1.263514977925239 -0.115356639147324
0.232874067894657 0.204282858001805 -0.046623437548179
0.424195240651384 -0.518226192983654 -0.056877704018206
-1.614398791142125 1.046157063099677 0.025739172199258
0.086343643110633 1.353722841046785 -0.057007082214454
0.541103989238672 0.203211080982819 -0.110003599467424
-0.007007045343741 -0.000000000000000 -0.049506578507818
-5.926122082381418 -0.700661095323608 0.965222076369595
0.075033852394304 1.351469962104254 -0.066271600439379
-0.240822013570078 -0.313586367041862 0.005330167496404
-0.012947695563358 -0.000000000000000 -0.048294483945877
-0.014424854191123 -0.000000000000000 -0.047874038701209
-0.015888402843085 -0.000000000000000 -0.047408423883270
0.164166439912947 0.425845722639091 -0.113995013120309
0.197534693384924 0.230838403191420 -0.133946776823331
-0.020253887941287 -0.000000000000000 -0.045714111861238
-0.021579100156895 -0.000000000000000 -0.045103685397301
0.116039885049232 0.598901193790750 -0.116245882308903
-0.024307618366592 -0.000000000000000 -0.043693703085732
0.164038757533660 0.378359951279525 -0.155817307429465
0.208907087060344 -0.012224333309136 -0.192998593650599
-1.960196699595865 3.349971938267179 1.284352331611511
0.280068178098720 -0.341198291811495 -0.267072632969725
-0.590505386748604 -3.395291418742095 0.397525008694012
0.068073848906813 0.590592937472640 -0.121607959453527
-0.030947843811002 -0.000000000000000 -0.039271248559854
-2.672152948056393 0.938539136728998 1.919946476733535
-0.028478323557568 0.000000000000000 -0.041097263745297
-3.021660927065704 0.520929342222642 1.893174166513985
0.207319882126682 -0.027872113629700 -0.183522952942654
0.016511693873690 1.347678530235251 -0.066649779507335
-0.023226647836609 -0.000000000000000 -0.044277791614692
0.254697309030308 -0.011336624665939 -0.179902089242742
-4.406482642703736 -1.145764581108943 1.921855173192544
0.297144949850760 0.124689430730991 -0.175987178914178
-5.109444026423462 -0.004448952850111 1.862231443098343
-0.016106675745898 -0.000000000000000 -0.047334712383371
-0.323902369783711 1.299071677891056 0.047450954150718
-0.302057841941645 -3.329304742243895 0.031121630642823
0.184117525296486 0.376250123159253 -0.095666839611983
-0.010258969015340 0.000000000000000 -0.048936219252638
-1.025086723814370 -3.637359072187698 0.131442719970978
0.497106765782163 -0.531284779910492 -0.123229089703116
0.077710957571142 0.557713678513485 -0.059266009417988
-0.004107362103879 -0.000000000000000 -0.049831010189917
0.547149438376249 -0.773046225394387 -0.078281705960247
0.274432212632959 0.212979319999734 -0.055721023158491
-1.373097780861518 1.243649712525948 -0.063615066826207
-0.039784979003036 -3.494248435138705 -0.051723099060667
0.288735151262089 0.212607846381500 -0.029051309483032
-0.317838511058416 1.288002748171264 -0.082314422135134
0.339373369850076 0.223393235278721 -0.005633894595132
0.008062966681751 -0.000000000000000 -0.049345603332911
0.009574712693851 -0.000000000000000 -0.049074686721672
0.011077424880973 -0.000000000000000 -0.048757467715278
0.012569685421058 -0.000000000000000 -0.048394245612631
0.014123769979479 -0.000000000000000 -0.047963727144237
0.015590215267177 -0.000000000000000 -0.047507317204017
0.495341383593729 0.508763329063721 0.126400311310734
-0.447322426671352 1.177376553029174 -0.230883843033666
-0.584310759317214 1.234567551625465 -0.307935804218422
-2.114268803542010 -0.365545561361547 -1.054532565375725
0.022743056930853 -0.000000000000000 -0.044528118772748
0.024032604728140 -0.000000000000000 -0.043845568875098
0.316232522141215 0.220639210065425 0.128163541703212
0.026679249706020 -0.000000000000000 -0.042287322392460
0.027901740196909 -0.000000000000000 -0.041490877238065
-0.063527595490564 -0.231393167315434 -0.107170176499430
0.030457453094141 -0.000000000000000 -0.039652787430623
-0.181429565767910 -0.240975799379909 -0.211947019980186
-1.150865727075745 0.491847712593009 -1.065233058236291
0.033864348913102 0.000000000000000 -0.036785946673855
-0.201312431557490 0.077158907490327 -0.266347156724659
0.036005764612999 0.000000000000000 -0.034692721349490
0.647387664914136 0.085028491112033 0.640100278875297
0.008930532020541 -3.502281069572805 -0.062879291581579
0.035033012511425 -0.000000000000000 -0.035674753459195
-0.989315874304037 1.160282895689019 -0.981611056030617
0.286249968544769 0.279778017634533 0.182955674567939
0.031720338782229 -0.000000000000000 -0.038649969049672
-0.270469016280692 -0.164357055280796 -0.271531341858689
0.626173855693686 0.096644162406127 0.392247955148936
0.888502113510504 -1.541104520885417 0.543020637263352
0.026809020960753 0.000000000000000 -0.042205170241641
0.025500127802705 -0.000000000000000 -0.043008644271189
0.024167175051557 -0.000000000000000 -0.043771539269569
0.022811420359862 -0.000000000000000 -0.044493135438691
0.219437592350095 0.603167363689243 0.048778447533337
0.020106977188198 0.000000000000000 -0.045778919475598
-2.450297485057272 -0.722935114502530 -1.037100582123653
0.017114127083479 0.000000000000000 -0.046979853705291
-3.140883732177499 -0.051671186846150 -1.088722890313536
0.014271037106082 -0.000000000000000 -0.047920115817022
0.012718282335412 -0.000000000000000 -0.048355406051824
-1.350072180633295 0.619691026213223 -0.362403368652751
0.009725413899971 0.000000000000000 -0.049045043831913
0.008214507214934 -0.000000000000000 -0.049320602908073
0.246379138675936 0.572344476445220 0.197477043749269
-0.186255428609561 -0.065717538211263 -0.265366012301726
0.035033012511425 -0.000000000000000 -0.035674753459195
0.588673685569015 0.437906369070474 0.477116721930920
-0.236308548011917 0.889584313826007 -0.272066662292926
-1.218394008488827 0.510879171607973 -1.064628814233243
0.030579113825931 -0.000000000000000 -0.039559041919905
-0.243764289415171 -0.051101171955041 -0.237861732800251
-1.474106709358155 0.173665589045417 -1.058274413895933
-0.288617558110361 -0.047482362137356 -0.241887149175539
0.025500127802705 -0.000000000000000 -0.043008644271189
0.024099918315182 -0.000000000000000 -0.043808605743638
-1.887365771422478 -0.829379363521538 -1.023831958246783
-2.130936186936648 -0.111829133616899 -1.066456849609206
-0.666570665441556 -3.316124547820550 -0.346123668382783
0.018620236613877 -0.000000000000000 -0.046403521293575
0.017114127083479 0.000000000000000 -0.046979853705291
-0.277841918437176 -0.231355995839372 -0.144801015356668
0.014271037106082 0.000000000000000 -0.047920115817022
-1.533390819331329 1.046754337976648 -0.457548031486822
-0.825903569716097 1.105758910267059 -0.241620753237823
-0.374376174312984 1.277064144207953 -0.125210679197836
0.246098568999582 0.205743529039383 -0.009700236841382
0.006771944907812 -0.000000000000000 -0.049539285038902
0.005247251922129 -0.000000000000000 -0.049723901167001
-0.242560397960754 -0.281106707005317 -0.068604191692252
-1.385388501797845 1.258290607607040 -0.112767497064654
0.000726031452614 0.000000000000000 -0.049994728505412
-0.000809797365929 -0.000000000000000 -0.049993441852168
-1.588703719195270 1.070561159398554 0.024532816844828
0.111683066315813 1.360062073608864 -0.059017358709570
0.543528856128564 0.191198611761834 -0.110271135914717
-0.007007045343741 -0.000000000000000 -0.049506578507818
-5.921321508748469 -0.589211333708239 0.964399084540477
0.073970185829717 0.954917093087159 -0.066055427016156
-0.246184365870035 -0.307783682393710 0.006592636296435
-0.012947695563358 -0.000000000000000 -0.048294483945877
-0.014424854191123 -0.000000000000000 -0.047874038701209
-0.015888402843085 -0.000000000000000 -0.047408423883270
0.165675032350141 0.409933485765654 -0.114552699242750
0.192917035460998 0.221275357333938 -0.132076620435556
-0.020253887941287 -0.000000000000000 -0.045714111861238
-0.021579100156895 -0.000000000000000 -0.045103685397301
0.132190438677376 0.623764886153179 -0.124591802397248
-0.024307618366592 -0.000000000000000 -0.043693703085732
0.166582898476085 0.366697672197482 -0.157331513500171
0.212362598381198 -0.015354433480103 -0.195209165208222
-0.705643684374519 1.249979672776728 0.423539692174582
0.291736083754898 -0.365096219406265 -0.275617253651885
-0.630839645497691 -3.322146819872341 0.429010386098566
0.077859595512050 0.589189099198253 -0.129742634753003
-0.030947843811002 -0.000000000000000 -0.039271248559854
-2.700382073780435 1.014616795919836 1.940886823862392
-0.028478323557568 0.000000000000000 -0.041097263745297
-3.050530269410225 0.594324134680158 1.911830575220687
0.208386230318686 -0.030338662557641 -0.184166519942635
0.038047612558763 1.348341264052505 -0.078760887068849
-0.023226647836609 -0.000000000000000 -0.044277791614692
0.254701715037286 -0.016720157361107 -0.179904238957522
-4.400602360308656 -1.050550565930610 1.919217402320216
-0.018982496333774 0.000000000000000 -0.046256511249102
-5.139565185230566 0.095482115618378 1.873524452032301
-0.016106675745898 -0.000000000000000 -0.047334712383371
-0.301133029283153 1.302978398953730 0.040437489223828
-0.361600020471669 -3.332224387472090 0.047477565556210
0.186811256982937 0.364759016217370 -0.096314144094164
-5.508562450515348 2.292949842514960 1.103725876738863
-1.095327094654016 -3.630987187826321 0.143929140753010
0.493948290594609 -0.547344832162703 -0.122767191966935
0.090842669200139 0.570277234182864 -0.060776110646677
-0.004107362103879 -0.000000000000000 -0.049831010189917
0.528649701054180 -0.777137684334773 -0.077327716002176
0.287042094169530 0.216640127810853 -0.055983401083426
-1.411192639673151 1.325873608815964 -0.063992731443938
-0.096577127736515 -3.204227991909018 -0.054119282745292
0.302375371813358 0.215506450613040 -0.028055378537861
-0.295480634293996 1.293713250908585 -0.080059160504951
0.355969360926998 0.226572194152904 -0.003443097146986
0.008062966681751 -0.000000000000000 -0.049345603332911
0.009574712693851 -0.000000000000000 -0.049074686721672
0.011077424880973 -0.000000000000000 -0.048757467715278
0.837777125918796 -1.675557529502904 0.165941111884202
0.014123769979479 -0.000000000000000 -0.047963727144237
0.015590215267177 -0.000000000000000 -0.047507317204017
0.257731716038666 0.229385970336120 0.040255455043025
-0.454875393079271 1.257911046433492 -0.233874273984069
0.019895830374765 0.000000000000000 -0.045871079491315
-2.128092969712085 -0.322892764885723 -1.061066038070418
0.022743056930853 -0.000000000000000 -0.044528118772748
0.024032604728140 -0.000000000000000 -0.043845568875098
0.331229662393813 0.223137420497468 0.136993302114435
0.026679249706020 -0.000000000000000 -0.042287322392460
-0.254947659876687 -0.173558418185828 -0.231701135517793
-0.061413996396943 -0.218995270674029 -0.105652519936653
0.030457453094141 -0.000000000000000 -0.039652787430623
-0.180024953259657 -0.231597315241255 -0.210805033803516
-1.013483937574425 0.465252343348801 -0.945977174823520
0.033864348913102 0.000000000000000 -0.036785946673855
-0.201147633387035 0.083393873128039 -0.266186314463196
-0.976934313148445 1.200755095031442 -1.085970355050823
0.649320544437795 0.068766995397104 0.642233743208079
0.036059006318861 -0.000000000000000 -0.034637379567402
0.035033012511425 -0.000000000000000 -0.035674753459195
-0.987465285607415 1.201885634763092 -0.979902185511587
0.288739030133903 0.272184184259070 0.185123046421988
0.031720338782229 -0.000000000000000 -0.038649969049672
0.030518319455735 -0.000000000000000 -0.039605961389641
0.627939925442489 0.085058073676576 0.393528444509049
0.902885504994395 -1.626444374087278 0.552789709447325
-1.038785205908088 1.168225987198124 -0.719078117329029
0.025500127802705 -0.000000000000000 -0.043008644271189
0.024167175051557 -0.000000000000000 -0.043771539269569
0.022811420359862 -0.000000000000000 -0.044493135438691
0.225941434103034 0.584445127682305 0.051864473234368
0.020106977188198 0.000000000000000 -0.045778919475598
-2.479413199653300 -0.678123021206702 -1.048783779429526
0.342719811271595 0.445297402905534 0.071633905572355
-3.146239113932895 0.009079791471470 -1.090489452193641
0.014271037106082 -0.000000000000000 -0.047920115817022
0.012718282335412 -0.000000000000000 -0.048355406051824
-1.184120990416133 0.573228886955741 -0.324163729025007
0.312228132941713 0.218581590282551 0.010939898961293
0.008214507214934 -0.000000000000000 -0.049320602908073
0.244063690990198 0.538766331605358 0.194921310196567
-0.154186137987923 -0.049258299994605 -0.232082969504465
0.035033012511425 -0.000000000000000 -0.035674753459195
0.591732857636056 0.421420762399128 0.479950339840284
-0.223851627384982 0.891753874035193 -0.261219691180279
-1.025266095269815 0.463332505093818 -0.906127190913988
0.030579113825931 -0.000000000000000 -0.039559041919905
-0.243852997422166 -0.045022315754815 -0.237925842926528
-1.476782034201665 0.207544246406509 -1.060085472611878
-0.287790463534492 -0.040872165126344 -0.241363554035168
0.025500127802705 -0.000000000000000 -0.043008644271189
0.024099918315182 -0.000000000000000 -0.043808605743638
0.022811420359862 -0.000000000000000 -0.044493135438691
-2.139161884786035 -0.069802581685602 -1.070359883529219
-0.731659422863749 -3.348963837054437 -0.374592721547423
0.018620236613877 -0.000000000000000 -0.046403521293575
0.229939854653294 0.984786590981858 0.030549688449358
-0.274893301057491 -0.220804822636681 -0.143823340713876
0.014271037106082 0.000000000000000 -0.047920115817022
-1.487675777361292 1.056806952979414 -0.445449108301771
-0.799809599244305 1.111407093116676 -0.235607997161819
-0.351916831538986 1.280479800127563 -0.120757091488810
0.008214507214934 0.000000000000000 -0.049320602908073
0.006771944907812 -0.000000000000000 -0.049539285038902
0.005247251922129 -0.000000000000000 -0.049723901167001
-0.250633299186607 -0.280912779381253 -0.069218564844528
-1.345137858006484 1.269498063440186 -0.110945357628630
0.000726031452614 0.000000000000000 -0.049994728505412
-0.000809797365929 -0.000000000000000 -0.049993441852168
-1.566038085918836 1.097388717149557 0.023468690302543
0.098736845608856 0.917484999764065 -0.057990283902972
0.545117032228410 0.180153469979229 -0.110446359962354
-0.007007045343741 -0.000000000000000 -0.049506578507818
-5.967426750714554 -0.480800876376053 0.972303189407686
0.086006301960305 0.896417041566176 -0.068501577447956
-0.250533942391365 -0.305513878765760 0.007616665368820
-0.012947695563358 -0.000000000000000 -0.048294483945877
-0.014424854191123 -0.000000000000000 -0.047874038701209
-0.015888402843085 -0.000000000000000 -0.047408423883270
0.168481267615496 0.397073111994524 -0.115590089080595
0.195322658225759 0.212702884638414 -0.133050900222888
-0.020253887941287 -0.000000000000000 -0.045714111861238
-0.021579100156895 -0.000000000000000 -0.045103685397301
0.135752396686043 0.592399932116905 -0.126432470994922
-0.331200966626713 -0.390246819326288 0.127036765195147
0.169552100660066 0.355998244045616 -0.159098704891639
0.204429897554033 -0.021390775564881 -0.190134430618919
-0.677554456037090 1.248720475421301 0.404266243789762
0.295086750176362 -0.383713857464657 -0.278071007945716
-0.728805195544156 -3.568260328174969 0.505483399648800
0.085997237442195 0.592464546180714 -0.136507276989877
-0.030947843811002 -0.000000000000000 -0.039271248559854
-2.701469075908084 1.081848648905313 1.941693161334734
-0.028478323557568 0.000000000000000 -0.041097263745297
-3.030223062832244 0.658662841204315 1.898707326998091
0.212262395590130 -0.036612596917725 -0.186505879706994
0.060084987010891 1.356031339286679 -0.091153997215020
-0.023226647836609 -0.000000000000000 -0.044277791614692
0.254382000361175 -0.025546332017515 -0.179748248427344
-4.415610058295352 -0.960911121701936 1.925949539648028
-0.018982496333774 0.000000000000000 -0.046256511249102
-5.152466508182915 0.197493160477734 1.878361409212262
-0.016106675745898 -0.000000000000000 -0.047334712383371
-0.276820147351284 1.306015025624144 0.032948579095026
-0.421432251106641 -3.334740201817924 0.063913176313967
0.190840846435631 0.351408800642974 -0.097282455573440
-5.445323209146447 2.387642418358706 1.090468428009368
-1.176925155854568 -3.661826214137558 0.158434584203388
0.490670213055414 -0.562861825972030 -0.122287803494817
0.104716897618712 0.589867966179988 -0.062371598727281
-0.004107362103879 -0.000000000000000 -0.049831010189917
0.509352307826889 -0.780463083239901 -0.076332592718246
0.300110909194230 0.218720924314850 -0.056255328187387
-1.405207829472316 1.367949460487625 -0.063933399262977
-0.160357995012001 -3.310008141863941 -0.056810335592650
0.316987019314037 0.221655361764515 -0.026988519548950
-0.269425642534875 1.295970396448624 -0.077430967147942
0.370586917339920 0.227092731302864 -0.001513468169775
0.008062966681751 -0.000000000000000 -0.049345603332911
0.009574712693851 -0.000000000000000 -0.049074686721672
0.011077424880973 -0.000000000000000 -0.048757467715278
0.853789916027185 -1.783219774772056 0.170100195920494
0.014123769979479 -0.000000000000000 -0.047963727144237
0.015590215267177 -0.000000000000000 -0.047507317204017
0.259506503736226 0.220395591985916 0.040898900373702
-0.429320319368795 1.259590977086541 -0.223756304535201
0.019895830374765 0.000000000000000 -0.045871079491315
-2.132100988177440 -0.279935505770399 -1.062960277396035
0.022743056930853 -0.000000000000000 -0.044528118772748
-0.180989606418818 -0.241315941148985 -0.156222210059074
0.344203925448745 0.224931595793870 0.144632067396195
0.026679249706020 -0.000000000000000 -0.042287322392460
0.027901740196909 -0.000000000000000 -0.041490877238065
-0.064065620430489 -0.209068039574021 -0.107556501930530
0.030457453094141 -0.000000000000000 -0.039652787430623
-0.181297005606016 -0.223370974998855 -0.211839245151490
-1.010980489325073 0.492417476602585 -0.943804027031237
0.033864348913102 0.000000000000000 -0.036785946673855
-0.202282208623511 0.088232704967434 -0.267293654710552
-0.983549535354869 1.253607654068037 -1.092835948880367
0.650870946568607 0.052913710808691 0.643945038509762
-0.074535376238938 -3.267852692046004 -0.149770902636663
0.035033012511425 -0.000000000000000 -0.035674753459195
-0.989073344102377 1.248952974409631 -0.981387098804278
0.289625304531254 0.264237231807612 0.185894777500146
0.031720338782229 -0.000000000000000 -0.038649969049672
0.030518319455735 -0.000000000000000 -0.039605961389641
0.029349712554711 -0.000000000000000 -0.040479554999479
0.916885949876855 -1.719417514957155 0.562298687689185
-1.040000689572897 1.211183100799541 -0.719850201101248
-0.112253705593132 -0.198760164018529 -0.124683861345155
0.024167175051557 -0.000000000000000 -0.043771539269569
0.022811420359862 -0.000000000000000 -0.044493135438691
0.238629155332806 0.588543583491095 0.057884704858991
-1.053127117217187 1.311169849573919 -0.517163864795410
-2.488527621361101 -0.629116098262012 -1.052441102927116
0.017114127083479 0.000000000000000 -0.046979853705291
-3.174968568502516 0.071476478096363 -1.099966341348693
0.036264634358010 -3.506174901959853 -0.041370226754213
0.012718282335412 -0.000000000000000 -0.048355406051824
-1.185471189301007 0.601038012678018 -0.324474851341851
0.325677042402880 0.219441068837552 0.013606757848428
0.008214507214934 -0.000000000000000 -0.049320602908073
0.244056323189598 0.515019831395329 0.194913177801558
-0.151806992248840 -0.039171416958480 -0.229613778327489
0.141766339523287 -1.204748173333984 0.069138584210242
0.593967181411933 0.404791030582644 0.482019925900791
-0.211706126859023 0.897735153232827 -0.250643891807449
0.031720338782229 0.000000000000000 -0.038649969049672
-0.381201654675442 -0.262691299000603 -0.357865309721522
-0.242715662644939 -0.040185284691112 -0.237103880189933
-1.485758968341206 0.242185930264614 -1.066162400000834
-0.289333244988741 -0.032522952403741 -0.242340217279817
-0.107516407925861 -0.199606953465118 -0.121875084225999
0.024099918315182 -0.000000000000000 -0.043808605743638
-1.649958936517858 -0.646122919378910 -0.902114595468965
-2.137515327067404 -0.020854238207240 -1.069578603843927
-0.788983093430722 -3.342840032417459 -0.399665417502854
0.018620236613877 -0.000000000000000 -0.046403521293575
0.226958277099588 0.881395145646407 0.029463539959338
-0.273555427167013 -0.212419227224558 -0.143379741151931
0.014271037106082 0.000000000000000 -0.047920115817022
-1.449316763577059 1.070130823043173 -0.435297028346690
-0.773594793726955 1.118754734138769 -0.229567397425336
-0.328564127218821 1.287096163530184 -0.116126354161393
0.008214507214934 0.000000000000000 -0.049320602908073
0.006771944907812 -0.000000000000000 -0.049539285038902
0.005247251922129 -0.000000000000000 -0.049723901167001
-0.262746810392327 -0.281226656185033 -0.070140441113837
-1.411327661181365 1.379219891290258 -0.113941758164551
0.261749075426575 0.208347310341193 -0.046204110065275
0.568339935816474 -0.758394126685940 -0.059212570155298
-1.581069899640889 1.151570154177382 0.024174417416594
0.079641840140116 0.569610190217256 -0.056475401722856
0.547108381835126 0.169637857796176 -0.110666066289872
-0.007007045343741 -0.000000000000000 -0.049506578507818
-5.968449671922849 -0.369847314637046 0.972478555074505
0.069591039693163 0.564190174770565 -0.065165434754814
-0.259773046678262 -0.304189223980503 0.009791845261893
-0.012947695563358 -0.000000000000000 -0.048294483945877
-0.014424854191123 -0.000000000000000 -0.047874038701209
-0.015888402843085 -0.000000000000000 -0.047408423883270
0.173340043327926 0.384858754162686 -0.117386248016614
0.197340373761167 0.203914632380963 -0.133868077168306
-0.020253887941287 -0.000000000000000 -0.045714111861238
-0.021579100156895 -0.000000000000000 -0.045103685397301
0.139838253322787 0.562400201696868 -0.128543868149957
-0.332193200242077 -0.376994410068813 0.127588763179970
0.174858637330368 0.349280857657489 -0.162257016566360
0.205500575532850 -0.024217392421510 -0.190819368408896
-0.655286936168019 1.255419421188836 0.388987365719530
0.284367657420595 -0.386965231011710 -0.270221220301399
-0.727848208932484 -3.300327066973174 0.504736365103625
0.095925261445493 0.593385948740083 -0.144760224352014
-0.030947843811002 -0.000000000000000 -0.039271248559854
-2.696349214973164 1.150305162291203 1.937895251818274
0.300226757333512 0.102145160726896 -0.268873246755941
-3.024592579201399 0.726098017147432 1.895068705702883
0.209031305240819 -0.040157421190343 -0.184555838305541
-0.024508685752864 0.000000000000000 -0.043581238195666
-3.800680135412267 -1.994763660875202 1.937247905027734
-0.021924831891939 -0.000000000000000 -0.044936641468964
-4.366471308992319 -0.859992306400197 1.903906931333402
-0.018982496333774 0.000000000000000 -0.046256511249102
-5.127661313757404 0.296460730112346 1.869061458833534
-0.016106675745898 -0.000000000000000 -0.047334712383371
-0.254017094970730 1.311053311779854 0.025924730156884
-0.485407543906176 -3.357735095210442 0.081486865267361
0.197829372731567 0.352919751989747 -0.098961800408694
-5.488020299180873 2.526701541231754 1.099419428523875
-0.008751152948764 -0.000000000000000 -0.049228216726460
0.483150321148639 -0.574856690198856 -0.121188088967454
0.116736131381017 0.596652072053459 -0.063753768865123
-0.004107362103879 -0.000000000000000 -0.049831010189917
0.490843082434177 -0.782586390396908 -0.075378113481655
0.313601085130573 0.219595309703626 -0.056536022685500
-1.394520211995866 1.409616968603328 -0.063827444415142
-0.222162057648807 -3.340967789947157 -0.059417982773405
0.331374944177385 0.220086611951848 -0.025937995508350
-0.245868814324227 1.301039150345779 -0.075054766073392
0.386659287446511 0.228815374298184 0.000608207315104
0.008062966681751 -0.000000000000000 -0.049345603332911
0.009574712693851 -0.000000000000000 -0.049074686721672
0.011077424880973 -0.000000000000000 -0.048757467715278
0.868712916555993 -1.898276377355669 0.173976223324389
0.014123769979479 -0.000000000000000 -0.047963727144237
0.015590215267177 -0.000000000000000 -0.047507317204017
0.261548739977975 0.212730873633798 0.041639308578976
-0.407462614430738 1.264872646674668 -0.215102226942188
-0.424038561783736 1.050399581081515 -0.238420360255073
-2.137323583390112 -0.235818758517553 -1.065428540783326
-0.655952183303067 -3.338367215848238 -0.391176594225196
-0.182041821736779 -0.234872150396611 -0.156798949635597
0.359573581931103 0.224759883726704 0.153681151558657
0.026679249706020 -0.000000000000000 -0.042287322392460
0.027901740196909 -0.000000000000000 -0.041490877238065
-0.065131516274690 -0.203751097799549 -0.108321861751165
0.030457453094141 -0.000000000000000 -0.039652787430623
-0.183466861220685 -0.216253904089090 -0.213603393699764
-1.102698610047991 0.564981633002480 -1.023421023952547
0.033864348913102 0.000000000000000 -0.036785946673855
-0.201099917793890 0.093306066722902 -0.266139744262280
0.036005764612999 0.000000000000000 -0.034692721349490
0.652437093876188 0.035761116384980 0.645673712945861
-0.113253595392342 -3.208017526243869 -0.190078239004036
0.035033012511425 -0.000000000000000 -0.035674753459195
-0.990272200516710 1.295734071103994 -0.982494146732725
0.289567243865480 0.252762214189628 0.185844220674483
0.031720338782229 -0.000000000000000 -0.038649969049672
0.030518319455735 -0.000000000000000 -0.039605961389641
0.029349712554711 -0.000000000000000 -0.040479554999479
0.931239399507448 -1.826009631935620 0.572047423631422
0.026809020960753 0.000000000000000 -0.042205170241641
-0.114156652220164 -0.196957174909716 -0.125812131789698
0.024167175051557 -0.000000000000000 -0.043771539269569
0.022811420359862 -0.000000000000000 -0.044493135438691
0.248761402796949 0.590092941515071 0.062692382731752
-0.848084251450930 1.107189859560974 -0.427105115663893
-2.487950465428364 -0.575621300014666 -1.052209508864186
0.017114127083479 0.000000000000000 -0.046979853705291
-3.146625951816986 0.131741428885876 -1.090617057113519
-0.027257303599508 -3.530734122194019 -0.060287625391216
0.012718282335412 -0.000000000000000 -0.048355406051824
-1.272932557731574 0.674176602057524 -0.344628314572561
0.340075582175699 0.224499812827321 0.016461924199707
0.008214507214934 -0.000000000000000 -0.049320602908073
0.253323631603714 0.518313492989137 0.205142202280529
-0.149561177597812 -0.037066267565830 -0.227282964527247
0.126502780091002 -1.203943699020555 0.054149595732108
0.595467512839705 0.388916204097523 0.483409637205206
-0.210373120861308 0.945781086052177 -0.249483165333931
0.031720338782229 0.000000000000000 -0.038649969049672
0.030579113825931 -0.000000000000000 -0.039559041919905
-0.244024003492874 -0.032191874529460 -0.238049430651680
-1.482803266415806 0.276228622352604 -1.064161540274690
-0.289817630119179 -0.025069764485826 -0.242646858996213
-0.110375433188302 -0.194416857226186 -0.123570220420567
0.024099918315182 -0.000000000000000 -0.043808605743638
0.022811420359862 -0.000000000000000 -0.044493135438691
-2.147221857124008 0.021602657573643 -1.074184281897051
-0.854372338645044 -3.362945775350475 -0.428265900476085
0.018620236613877 -0.000000000000000 -0.046403521293575
0.231518558156945 0.830730193714162 0.031124788843627
-0.277872005347573 -0.207540780199523 -0.144810991289652
0.014271037106082 0.000000000000000 -0.047920115817022
-1.442827621514660 1.107211891285919 -0.433579614822246
-0.743004713696805 1.117662610484832 -0.222518616184261
-0.303677515428981 1.287446572915571 -0.111191449809924
0.274213840763807 0.211158338123389 -0.005017546664470
0.006771944907812 -0.000000000000000 -0.049539285038902
0.005247251922129 -0.000000000000000 -0.049723901167001
0.003794185617095 -0.000000000000000 -0.049855833715855
-1.380328192409530 1.398422481143097 -0.112538417764886
0.270279325241281 0.210857205302575 -0.046080232411584
0.550899764383730 -0.764712819362700 -0.058930073004385
-1.593768015959220 1.205319456480980 0.024770580005416
0.089318388376238 0.564802359443108 -0.057243080502102
0.548424088364496 0.158972138760527 -0.110811228670544
-0.007007045343741 -0.000000000000000 -0.049506578507818
-6.041814284063449 -0.262248028274911 0.985055901232410
0.081342747212040 0.568161866278681 -0.067553783629965
-0.264339535909423 -0.297874271825817 0.010866942506075
-0.012947695563358 -0.000000000000000 -0.048294483945877
-0.014424854191123 -0.000000000000000 -0.047874038701209
-0.015888402843085 -0.000000000000000 -0.047408423883270
0.177520868007250 0.373341846093586 -0.118931786656829
-0.018769160879900 0.000000000000000 -0.046343484977550
-0.020253887941287 -0.000000000000000 -0.045714111861238
-0.021579100156895 -0.000000000000000 -0.045103685397301
0.140371074267811 0.529227395188916 -0.128819207381723
-0.328058260662264 -0.358372923150914 0.125288419510820
0.173431399537570 0.334995091131623 -0.161407562004248
